# .PCD v0.7 - Point Cloud Data file format
VERSION 0.7
FIELDS x y z
SIZE 4 4 4
TYPE F F F
COUNT 1 1 1
WIDTH 1305
HEIGHT 1
VIEWPOINT 0 0 0 1 0 0 0
POINTS 1305
DATA ascii
-0.0074556405 -0.079533897 0.70126498
-0.0061127436 -0.079420753 0.7002638
-0.0047678915 -0.07919462 0.69826251
-0.0034383715 -0.079194456 0.69826126
-0.002108854 -0.079194292 0.69826019
-0.00077930267 -0.079194121 0.69825888
0.00055021682 -0.07919395 0.69825774
0.0018797331 -0.079193816 0.69825649
0.0032092526 -0.079193644 0.69825536
0.0045539187 -0.079419464 0.70025432
0.0058682882 -0.079193331 0.69825304
0.0072205919 -0.079419166 0.70025194
0.0085539175 -0.079418987 0.70025074
0.009932816 -0.079757795 0.70324951
0.011288969 -0.079870626 0.70424837
0.01262993 -0.07987047 0.70424724
0.013970874 -0.079870336 0.70424604
0.015311809 -0.079870164 0.70424479
0.016652787 -0.079869993 0.70424366
-0.014189281 -0.078532763 0.70427078
-0.012831124 -0.078421466 0.70326936
-0.011461524 -0.078199148 0.7012682
-0.010126262 -0.078198992 0.701267
-0.0087910425 -0.07819882 0.70126581
-0.0074462327 -0.078087568 0.70026457
-0.0061129131 -0.078087427 0.70026338
-0.0047795745 -0.07808727 0.70026219
-0.003438524 -0.077864923 0.69826078
-0.0021089932 -0.077864781 0.69825965
-0.00077948847 -0.077864602 0.69825846
0.00055005733 -0.077864468 0.69825727
0.0018757989 -0.077753201 0.69725615
0.0032090931 -0.077864155 0.69825488
0.0045386148 -0.077863976 0.69825369
0.0058681346 -0.077863812 0.6982525
0.007197652 -0.077863656 0.69825131
0.0085537648 -0.078085661 0.70025027
0.0099022798 -0.078196593 0.70124906
0.011271721 -0.078418568 0.70324785
0.012629778 -0.078529529 0.70424682
0.013970709 -0.07852938 0.70424563
0.015311674 -0.078529209 0.70424438
0.016677322 -0.078640103 0.70524317
-0.014189431 -0.077191807 0.7042703
-0.012796912 -0.076864101 0.70126885
-0.011461678 -0.076863922 0.70126772
-0.010126444 -0.076863751 0.70126653
-0.0087912111 -0.076863594 0.70126534
-0.0074464059 -0.076754272 0.70026416
-0.006113064 -0.076754086 0.7002629
-0.0047682128 -0.076535553 0.69826162
-0.0034348345 -0.076426215 0.69726038
-0.0021072295 -0.076426081 0.69725925
-0.00077958609 -0.076425888 0.69725806
0.00054803916 -0.076425724 0.6972568
0.0018756457 -0.076425575 0.69725567
0.0032032635 -0.076425456 0.69725448
0.0045308759 -0.076425269 0.69725329
0.0058584805 -0.076425135 0.69725209
0.0071861092 -0.076424941 0.6972509
0.0085535971 -0.07675232 0.70024985
0.0099021131 -0.076861344 0.70124859
0.011271571 -0.07707952 0.70324737
0.012629584 -0.077188566 0.70424634
0.013991462 -0.077297546 0.70524508
0.015334312 -0.077297434 0.70524395
0.016677169 -0.07729727 0.70524275
-0.015530567 -0.075850978 0.70427102
-0.01417051 -0.075743541 0.70326966
-0.012797079 -0.07552886 0.70126843
-0.011446572 -0.075421408 0.7002672
-0.010113215 -0.075421222 0.700266
-0.0087798946 -0.07542108 0.70026487
-0.0074465713 -0.075420924 0.70026368
-0.006113233 -0.07542076 0.70026243
-0.0047626309 -0.075098775 0.6972611
-0.0034349931 -0.075098619 0.69725996
-0.0021073828 -0.075098448 0.69725877
-0.00077981694 -0.075205594 0.69825757
0.00054786389 -0.075098135 0.69725639
0.0018754705 -0.075097993 0.69725519
0.0032030975 -0.075097807 0.697254
0.0045307172 -0.07509768 0.69725287
0.005858344 -0.075097494 0.69725162
0.0071859565 -0.075097315 0.69725043
0.0085534276 -0.075418994 0.70024937
0.0099019296 -0.075526118 0.70124811
0.011271391 -0.075740471 0.70324689
0.012629419 -0.075847626 0.70424587
0.013991306 -0.075954728 0.70524472
0.015311334 -0.075847268 0.70424342
0.01665228 -0.075847112 0.70424223
0.017993245 -0.075846948 0.70424098
-0.018212609 -0.074510343 0.70427287
-0.016871667 -0.074510202 0.70427173
-0.015509713 -0.074404657 0.70327038
-0.01417066 -0.074404493 0.70326918
-0.012780046 -0.074088223 0.70026797
-0.011446712 -0.074088089 0.70026678
-0.010086628 -0.073877163 0.69826543
-0.008757093 -0.073876999 0.69826418
-0.0074275718 -0.073876813 0.69826305
-0.0060980576 -0.073876686 0.69826192
-0.0047627822 -0.073771134 0.69726062
-0.0034351444 -0.073770978 0.69725949
-0.0021075397 -0.073770843 0.69725835
-0.00077992748 -0.073770657 0.6972571
0.0005477143 -0.073770478 0.69725591
0.0018753192 -0.073770344 0.69725478
0.0032029296 -0.073770173 0.69725353
0.0045154165 -0.073559254 0.69525224
0.0058392026 -0.073559113 0.69525111
0.0071630366 -0.073558956 0.69524992
0.0085133947 -0.073769532 0.69724882
0.0098562269 -0.073874757 0.69824761
0.011219934 -0.074085362 0.70024651
0.012610275 -0.074401274 0.70324528
0.013949329 -0.07440111 0.70324409
0.015288382 -0.074400946 0.7032429
0.016652124 -0.074506208 0.70424187
0.017966473 -0.074400611 0.70324051
-0.022357719 -0.073583767 0.70827621
-0.020980522 -0.073480137 0.70727503
-0.019580459 -0.073273048 0.70527375
-0.018212777 -0.073169395 0.70427239
-0.016871816 -0.073169246 0.70427126
-0.015509876 -0.073065594 0.7032699
-0.014170821 -0.073065415 0.70326871
-0.012780217 -0.072754912 0.70026749
-0.011416301 -0.072547816 0.69826609
-0.010086783 -0.072547652 0.69826496
-0.0087572634 -0.072547488 0.6982637
-0.0074181585 -0.072443858 0.69726259
-0.0060905609 -0.072443672 0.69726139
-0.0047514169 -0.07223659 0.69526011
-0.0034275975 -0.072236426 0.69525892
-0.0021038058 -0.072236247 0.69525772
-0.00077998824 -0.072236098 0.69525659
0.00054381276 -0.072235957 0.6952554
0.0018676323 -0.0722358 0.69525415
0.0031914515 -0.072235636 0.69525301
0.0045152451 -0.072235443 0.69525182
0.005839061 -0.072235309 0.69525063
0.0071628802 -0.072235145 0.6952495
0.0085132662 -0.072441943 0.69724834
0.0098560564 -0.072545245 0.69824713
0.01121977 -0.072752006 0.70024604
0.012572121 -0.072855324 0.70124489
0.013949165 -0.073062047 0.70324361
0.015311047 -0.073165387 0.70424253
0.016651981 -0.073165216 0.70424134
0.017992914 -0.073165052 0.70424014
-0.022357883 -0.072235212 0.70827585
-0.020980703 -0.072133489 0.70727462
-0.019580606 -0.071930178 0.70527327
-0.018212942 -0.071828455 0.70427197
-0.016849097 -0.071726717 0.70327073
-0.01551003 -0.071726568 0.70326948
-0.014132796 -0.071523279 0.70126826
-0.012728788 -0.071116842 0.69726688
-0.011401183 -0.071116708 0.69726568
-0.010073571 -0.071116522 0.69726449
-0.0087229982 -0.07091324 0.69526321
-0.0073991972 -0.070913099 0.69526201
-0.006075378 -0.070912935 0.69526088
-0.0047458084 -0.070811234 0.69425958
-0.0034277688 -0.070912614 0.6952585
-0.0021039606 -0.070912428 0.69525725
-0.00078014127 -0.070912257 0.69525611
0.00054365624 -0.070912153 0.69525492
0.0018674941 -0.070911966 0.69525373
0.0031912839 -0.070911795 0.69525254
0.0045150993 -0.070911661 0.69525141
0.0058389078 -0.070911475 0.69525015
0.0071626939 -0.070911333 0.69524902
0.0085130995 -0.071114294 0.69724786
0.0098558869 -0.071215719 0.69824666
0.011185409 -0.07121554 0.69824547
0.012571939 -0.071520075 0.70124441
0.013949013 -0.071723014 0.70324314
0.015310851 -0.071824439 0.70424205
0.016651815 -0.071824268 0.7042408
0.017992776 -0.071824111 0.70423967
-0.022327526 -0.070786975 0.70727533
-0.020980861 -0.070786797 0.70727408
-0.01958077 -0.070587322 0.70527279
-0.018213108 -0.070487514 0.7042715
-0.016849244 -0.070387639 0.70327026
-0.015468225 -0.070188202 0.70126891
-0.014075679 -0.069889091 0.69826758
-0.012728978 -0.069789253 0.6972664
-0.011401352 -0.069789074 0.69726521
-0.01007373 -0.069788925 0.69726408
-0.0087231565 -0.069589444 0.69526273
-0.0073993541 -0.069589294 0.69526154
-0.0060755345 -0.069589131 0.69526041
-0.0047517265 -0.069588944 0.69525915
-0.0034240519 -0.069489136 0.69425797
-0.0021041061 -0.069588639 0.69525683
-0.00078030128 -0.069588482 0.69525564
0.00054349966 -0.069588341 0.69525445
0.001867319 -0.069588177 0.69525331
0.0031911272 -0.069587991 0.69525212
0.0045149284 -0.069587849 0.69525093
0.005838722 -0.069587663 0.69524974
0.0071625523 -0.069587529 0.69524854
0.0085129244 -0.069786713 0.69724745
0.0098557184 -0.069886193 0.69824618
0.011185263 -0.069886051 0.69824505
0.012571787 -0.070184834 0.70124394
0.013948852 -0.070383936 0.70324266
0.015310685 -0.070483491 0.70424163
0.016651649 -0.070483327 0.70424038
0.017992582 -0.070483148 0.70423925
-0.022327684 -0.069440283 0.70727485
-0.020981027 -0.069440149 0.70727366
-0.019580932 -0.069244459 0.70527232
-0.018213272 -0.069146551 0.70427108
-0.016849397 -0.069048621 0.70326978
-0.015510344 -0.069048457 0.70326859
-0.014075848 -0.068559565 0.6982671
-0.012729117 -0.068461627 0.69726592
-0.011401508 -0.068461463 0.69726479
-0.010073897 -0.068461291 0.6972636
-0.0087233149 -0.068265647 0.69526231
-0.0073995106 -0.068265483 0.69526106
-0.0060756914 -0.068265319 0.69525993
-0.004751883 -0.068265133 0.69525874
-0.0034242261 -0.068167239 0.69425756
-0.0021042626 -0.068264835 0.69525641
-0.00078045786 -0.068264671 0.69525516
0.00054334314 -0.068264529 0.69525403
0.0018671624 -0.068264365 0.69525284
0.0031909561 -0.068264179 0.69525164
0.0045147589 -0.06826403 0.69525045
0.0058385874 -0.068263903 0.69524932
0.0071851462 -0.06845925 0.69724822
0.0085127717 -0.068459079 0.69724697
0.0098555954 -0.068556659 0.69824576
0.011219297 -0.068751998 0.70024467
0.012571636 -0.068849601 0.70124352
0.013948683 -0.069044903 0.70324224
0.015287718 -0.069044769 0.70324105
0.016651487 -0.069142357 0.7042399
0.017965812 -0.069044419 0.70323867
-0.020981189 -0.068093479 0.70727319
-0.019581079 -0.067901589 0.70527184
-0.018238243 -0.067901462 0.70527071
-0.016872462 -0.067805447 0.70426947
-0.015510524 -0.067709401 0.70326811
-0.014133264 -0.067517549 0.70126688
-0.01274648 -0.06722986 0.69826549
-0.01140166 -0.067133822 0.69726431
-0.01007404 -0.067133687 0.69726318
-0.0087234862 -0.066941835 0.69526184
-0.0073996652 -0.066941664 0.69526064
-0.0060758772 -0.066941507 0.69525945
-0.0047520599 -0.066941358 0.69525832
-0.0034282366 -0.066941172 0.69525707
-0.0021044209 -0.066941038 0.69525594
-0.00078063295 -0.066940881 0.69525474
0.00054690411 -0.067132413 0.69725364
0.0018745145 -0.067132242 0.69725245
0.0032021524 -0.067132086 0.69725132
0.004529763 -0.067131922 0.69725007
0.0058573843 -0.067131773 0.69724894
0.007184993 -0.067131616 0.69724768
0.0085126013 -0.067131452 0.69724655
0.009855439 -0.067227148 0.69824529
0.011219127 -0.067418672 0.70024425
0.012552481 -0.067418516 0.70024306
0.013906702 -0.067514196 0.70124185
0.015287572 -0.067705691 0.70324057
0.016651334 -0.067801423 0.70423943
0.017992282 -0.067801252 0.7042383
0.019304698 -0.067705221 0.703237
-0.020981353 -0.066746823 0.70727271
-0.019581266 -0.066558771 0.70527148
-0.018213589 -0.066464648 0.70427018
-0.016872628 -0.066464499 0.70426899
-0.015510676 -0.066370361 0.70326769
-0.014133433 -0.066182323 0.70126641
-0.012746635 -0.065900341 0.69826502
-0.011401833 -0.065806225 0.6972639
-0.010074208 -0.065806054 0.6972627
-0.0087236417 -0.065618016 0.69526136
-0.0073998384 -0.065617859 0.69526023
-0.0060760174 -0.065617688 0.69525903
-0.0047521996 -0.065617539 0.69525784
-0.0034284079 -0.06561736 0.69525665
-0.0021046069 -0.065617226 0.69525546
-0.00078088901 -0.065804951 0.69725442
0.00054673618 -0.06580478 0.69725317
0.0018743576 -0.065804638 0.69725204
0.0032019699 -0.065804452 0.69725084
0.0045295875 -0.065804332 0.69724965
0.0058572148 -0.065804154 0.69724846
0.0071848361 -0.065804005 0.69724727
0.0085124616 -0.065803841 0.69724607
0.0098552573 -0.065897606 0.69824481
0.011184773 -0.065897465 0.69824368
0.012514293 -0.065897301 0.69824243
0.013906541 -0.066178925 0.70124131
0.015287394 -0.066366628 0.7032401
0.016651154 -0.06646046 0.70423907
0.017992115 -0.066460311 0.70423788
0.019333061 -0.066460162 0.70423669
0.020674011 -0.066459991 0.70423543
-0.020981513 -0.065400131 0.70727229
-0.019581424 -0.065215878 0.70527089
-0.018213782 -0.065123692 0.70426977
-0.016872793 -0.065123558 0.70426852
-0.015510841 -0.065031312 0.70326722
-0.014133616 -0.064847089 0.70126593
-0.012746802 -0.064570799 0.69826454
-0.011417257 -0.064570658 0.69826341
-0.01007438 -0.064478442 0.69726223
-0.0087467413 -0.064478293 0.69726104
-0.0073999953 -0.064294055 0.69525975
-0.006076172 -0.064293869 0.69525856
-0.0047523547 -0.064293712 0.69525737
-0.0034285665 -0.064293563 0.69525623
-0.0021047471 -0.064293407 0.69525498
-0.0007810439 -0.064477332 0.69725394
0.00054656831 -0.064477153 0.69725269
0.0018742009 -0.064477034 0.69725156
0.0032018241 -0.064476877 0.69725037
0.0045294361 -0.064476691 0.69724917
0.005857043 -0.064476542 0.69724804
0.007184668 -0.064476378 0.69724679
0.0085122949 -0.064476192 0.6972456
0.0098551027 -0.064568087 0.69824433
0.011184621 -0.064567916 0.69824326
0.01251414 -0.06456776 0.69824201
0.01388548 -0.064751707 0.70024091
0.015241618 -0.06484355 0.70123965
0.016650988 -0.06511952 0.70423859
0.017991936 -0.065119356 0.7042374
0.019361427 -0.065211207 0.70523614
0.020795571 -0.065487146 0.70823491
0.022144159 -0.065486975 0.70823365
0.023492699 -0.065486811 0.70823252
-0.019635014 -0.064053312 0.70727056
-0.01823872 -0.063872881 0.70526928
-0.016872955 -0.063782595 0.70426804
-0.015532024 -0.063782439 0.70426685
-0.014133768 -0.063511848 0.70126551
-0.012781359 -0.063421562 0.70026428
-0.01141744 -0.063241132 0.69826293
-0.010074536 -0.063150838 0.69726175
-0.0087469146 -0.063150696 0.69726062
-0.007400135 -0.062970228 0.69525927
-0.0060763434 -0.062970057 0.69525808
-0.0047640558 -0.063150197 0.69725704
-0.0034287067 -0.062969744 0.69525576
-0.0021049036 -0.062969595 0.6952545
-0.00078120088 -0.06314972 0.69725353
0.00054639659 -0.063149542 0.69725227
0.0018740348 -0.063149385 0.69725108
0.0032016563 -0.063149244 0.69724989
0.0045292815 -0.063149072 0.6972487
0.0058568898 -0.063148916 0.69724756
0.0071845134 -0.063148759 0.69724631
0.0085121384 -0.063148588 0.69724518
0.0098549342 -0.063238561 0.69824392
0.011184465 -0.063238412 0.69824272
0.012513984 -0.063238248 0.69824153
0.013843502 -0.063238092 0.6982404
0.01524145 -0.063508324 0.70123917
0.016626125 -0.063688397 0.70323801
0.017965181 -0.063688219 0.70323682
0.019304233 -0.06368807 0.70323563
0.020704104 -0.063868187 0.70523453
0.022143977 -0.064138435 0.70823324
0.023492536 -0.064138263 0.70823205
0.024841109 -0.064138092 0.70823079
-0.019635163 -0.062706657 0.70727015
-0.01823887 -0.062530033 0.70526886
-0.016896041 -0.062529869 0.70526767
-0.015532176 -0.062441502 0.70426637
-0.014172101 -0.062353037 0.70326507
-0.012798708 -0.062176485 0.7012639
-0.011448159 -0.062088069 0.70026267
-0.01008806 -0.061911441 0.69826126
-0.0087470822 -0.061823063 0.69726014
-0.0074194572 -0.061822895 0.69725889
-0.006091821 -0.06182275 0.69725776
-0.0047642072 -0.061822552 0.69725657
-0.0034366024 -0.061822418 0.69725537
-0.0021050787 -0.061645806 0.69525415
-0.00078136876 -0.06182209 0.69725299
0.00054627121 -0.061821926 0.6972518
0.001873863 -0.061821777 0.69725066
0.0032014754 -0.061821595 0.69724941
0.0045291097 -0.061821464 0.69724828
0.0058567203 -0.061821293 0.69724709
0.0071843415 -0.061821148 0.6972459
0.0085119689 -0.061820965 0.6972447
0.009854774 -0.061909068 0.6982435
0.011218489 -0.062085319 0.7002424
0.012551807 -0.062085193 0.70024121
0.013885162 -0.062085021 0.70024002
0.015241285 -0.062173069 0.70123875
0.016576529 -0.062172927 0.70123768
0.017965013 -0.062349197 0.70323634
0.019304084 -0.062349007 0.70323515
0.020703936 -0.062525354 0.70523411
0.022143813 -0.062789872 0.70823288
0.023492405 -0.062789679 0.70823157
0.024840945 -0.062789522 0.70823038
-0.021010619 -0.061446466 0.70827085
-0.019635322 -0.061359961 0.70726961
-0.018239051 -0.061187193 0.70526838
-0.016896185 -0.061186977 0.70526713
-0.015532326 -0.061100539 0.70426595
-0.014172272 -0.061014023 0.70326459
-0.012798858 -0.060841233 0.70126343
-0.011448343 -0.060754746 0.70026219
-0.010088229 -0.060581915 0.69826078
-0.0087472359 -0.060495432 0.69725966
-0.0074196272 -0.060495269 0.69725847
-0.0060920021 -0.060495101 0.69725728
-0.0047643809 -0.060494956 0.69725615
-0.0034367463 -0.060494825 0.69725496
-0.0021091341 -0.060494643 0.69725376
-0.00078152545 -0.06049449 0.69725251
0.0005460977 -0.06049433 0.69725138
0.0018737082 -0.060494158 0.69725019
0.0032013147 -0.060494013 0.697249
0.0045289272 -0.060493827 0.6972478
0.0058565647 -0.06049367 0.69724661
0.0071955565 -0.06057984 0.69824541
0.0085250894 -0.060579687 0.69824415
0.0098546073 -0.060579531 0.69824302
0.011218333 -0.060752008 0.70024198
0.012551656 -0.060751848 0.70024073
0.013884995 -0.060751688 0.70023954
0.015241131 -0.060837843 0.70123827
0.016576376 -0.060837701 0.7012372
0.017964846 -0.061010152 0.70323592
0.019303897 -0.061010003 0.70323473
0.020673368 -0.061096165 0.70423359
0.022046661 -0.061182324 0.70523238
0.023457972 -0.061354779 0.70723116
0.024840815 -0.061440948 0.70822996
0.026189355 -0.061440796 0.70822871
-0.019582056 -0.059844483 0.7052691
-0.018239208 -0.059844285 0.70526785
-0.016873451 -0.059759736 0.70426667
-0.015511502 -0.059675109 0.70326537
-0.01417245 -0.059674956 0.70326412
-0.01279901 -0.059505992 0.70126295
-0.011448483 -0.05942142 0.70026177
-0.010088402 -0.059252411 0.69826037
-0.0087473942 -0.059167836 0.69725925
-0.0074197822 -0.059167653 0.697258
-0.0060921591 -0.059167493 0.69725686
-0.0047645485 -0.059167325 0.69725567
-0.0034369291 -0.059167191 0.69725448
-0.00210539 -0.058998175 0.69525319
-0.00078158727 -0.058998022 0.69525206
0.00054593157 -0.059166681 0.6972509
0.0018660404 -0.058997672 0.69524968
0.0032011783 -0.059166368 0.69724852
0.0045287996 -0.059166223 0.69724739
0.0058564246 -0.059166055 0.69724613
0.0071840184 -0.059165891 0.697245
0.0085116439 -0.059165724 0.69724381
0.0098544545 -0.059249993 0.69824255
0.011183974 -0.059249826 0.69824135
0.012513519 -0.059249684 0.69824022
0.013884829 -0.059418339 0.70023906
0.015240964 -0.059502602 0.7012378
0.016576191 -0.059502471 0.70123672
0.017964711 -0.059671093 0.70323545
0.019303719 -0.059670936 0.70323426
0.020642787 -0.059670772 0.70323306
0.022014167 -0.05975505 0.70423186
0.023355113 -0.059754893 0.70423073
0.024804469 -0.060007978 0.70722955
0.026189197 -0.060092188 0.70822829
-0.020982344 -0.058666818 0.70726997
-0.019555513 -0.058419116 0.70426863
-0.018214561 -0.058418937 0.70426732
-0.016873617 -0.058418792 0.70426619
-0.015511653 -0.058336075 0.70326489
-0.014134424 -0.058170915 0.70126367
-0.012799191 -0.058170751 0.70126253
-0.011448649 -0.058088075 0.70026129
-0.010088556 -0.057922889 0.69825995
-0.0087475628 -0.057840202 0.69725871
-0.0074199229 -0.057840031 0.69725758
-0.0060923123 -0.057839863 0.69725639
-0.0047531687 -0.057674676 0.6952551
-0.0034293493 -0.05767452 0.69525391
-0.0021055466 -0.057674367 0.69525272
-0.00078174379 -0.057674214 0.69525158
0.00054206455 -0.057674028 0.69525033
0.0018658838 -0.057673864 0.6952492
0.0031896848 -0.057673723 0.69524801
0.0045286315 -0.057838593 0.69724691
0.0058562383 -0.057838444 0.69724572
0.0071838913 -0.057838295 0.69724452
0.0085115014 -0.05783812 0.69724339
0.009839097 -0.057837948 0.69724214
0.011183833 -0.057920318 0.69824088
0.012513349 -0.057920173 0.69823974
0.013842841 -0.05791999 0.69823855
0.015218011 -0.058084868 0.70023745
0.016576042 -0.058167219 0.70123625
0.017911289 -0.058167063 0.70123506
0.019246509 -0.058166888 0.70123386
0.020642636 -0.058331724 0.70323259
0.021981658 -0.058331568 0.70323139
0.023354949 -0.058413938 0.70423031
0.024804309 -0.058661297 0.70722902
0.02618905 -0.058743633 0.70822775
0.027537601 -0.058743499 0.70822662
-0.020925241 -0.057158925 0.7052694
-0.019555679 -0.057078172 0.70426822
-0.018214725 -0.057077978 0.70426691
-0.016873779 -0.057077829 0.70426571
-0.015511804 -0.05699702 0.70326447
-0.014134574 -0.056835659 0.70126319
-0.012799343 -0.05683551 0.70126206
-0.011418241 -0.056593508 0.69826061
-0.010088712 -0.056593377 0.69825947
-0.0087477192 -0.056512594 0.69725829
-0.0074200775 -0.056512415 0.6972571
-0.0060924855 -0.056512266 0.69725597
-0.004753327 -0.056350883 0.69525462
-0.0034295209 -0.056350704 0.69525349
-0.0021057012 -0.056350544 0.6952523
-0.00078189856 -0.056350391 0.69525111
0.00054190418 -0.056350239 0.69524997
0.0018657125 -0.056350052 0.69524872
0.0031895135 -0.056349915 0.69524759
0.0045284601 -0.056510981 0.69724649
0.0058560851 -0.056510814 0.69724524
0.0071837213 -0.056510668 0.69724411
0.008511317 -0.056510497 0.69724286
0.0098389406 -0.056510337 0.69724172
0.011183649 -0.056590792 0.6982404
0.012513167 -0.056590632 0.69823927
0.013842715 -0.056590483 0.69823807
0.015217843 -0.056751527 0.70023704
0.016551167 -0.056751367 0.70023584
0.017884506 -0.056751207 0.70023459
0.019217843 -0.05675105 0.7002334
0.020581592 -0.056831483 0.70123214
0.021981491 -0.056992542 0.70323098
0.023320543 -0.056992374 0.70322978
0.024731871 -0.057153422 0.70522863
0.026150838 -0.05731447 0.70722741
0.0274975 -0.057314303 0.70722622
-0.022329314 -0.05597363 0.70727026
-0.020925405 -0.055816058 0.70526892
-0.019555841 -0.055737194 0.70426768
-0.018214891 -0.055737033 0.70426643
-0.016851008 -0.055658139 0.70326519
-0.015511971 -0.055657987 0.703264
-0.01413474 -0.055500418 0.70126277
-0.012799514 -0.055500295 0.70126158
-0.011418397 -0.055263996 0.69826013
-0.010088893 -0.055263821 0.698259
-0.0087478738 -0.055184979 0.69725782
-0.0074202656 -0.055184815 0.69725668
-0.0060773143 -0.055027209 0.69525534
-0.0047534835 -0.055027075 0.69525421
-0.0034296792 -0.055026907 0.69525301
-0.0021058873 -0.055026732 0.69525182
-0.00078206987 -0.055026583 0.69525063
0.00054173288 -0.055026431 0.6952495
0.0018655377 -0.05502627 0.69524825
0.0031893717 -0.055026107 0.69524711
0.0045131599 -0.055025954 0.69524592
0.0058369958 -0.055025782 0.69524473
0.0071835387 -0.055183034 0.69724363
0.0085111586 -0.0551829 0.69724244
0.0098387999 -0.055182721 0.69724125
0.011166392 -0.055182572 0.69724005
0.012494017 -0.055182405 0.69723886
0.013821653 -0.055182263 0.69723773
0.01517205 -0.055260785 0.69823647
0.016550997 -0.055418048 0.70023531
0.017884325 -0.055417858 0.70023412
0.019160636 -0.055260312 0.69823289
0.020551 -0.055417545 0.70023179
0.021916658 -0.055496097 0.70123047
0.023251923 -0.05549591 0.70122933
0.024587138 -0.055495773 0.7012282
0.025922386 -0.055495601 0.70122701
0.027217677 -0.05541674 0.70022583
-0.022329479 -0.054626983 0.70726979
-0.020896953 -0.054396398 0.70426846
-0.019555993 -0.054396264 0.7042672
-0.018215043 -0.054396093 0.70426595
-0.016851189 -0.054319099 0.70326471
-0.015512134 -0.05431892 0.70326352
-0.014134892 -0.054165181 0.7012623
-0.01278246 -0.054088227 0.70026112
-0.011418549 -0.053934459 0.69825971
-0.010075634 -0.05385749 0.69725859
-0.0087480461 -0.053857367 0.6972574
-0.0074204188 -0.053857185 0.69725621
-0.0060774582 -0.053703409 0.69525492
-0.0047536679 -0.053703249 0.69525373
-0.0034298506 -0.053703099 0.69525254
-0.002106033 -0.053702947 0.69525141
-0.00078222464 -0.05370276 0.69525015
0.00054157985 -0.053702593 0.69524902
0.0018653956 -0.053702459 0.69524783
0.0031892003 -0.053702299 0.69524664
0.0045130197 -0.053702135 0.6952455
0.0058368263 -0.05370196 0.69524425
0.0071606142 -0.053701803 0.69524312
0.0084844613 -0.053701658 0.69524193
0.0098386323 -0.053855091 0.69724077
0.011166253 -0.053854946 0.69723958
0.01249386 -0.053854797 0.69723845
0.013842393 -0.053931419 0.69823712
0.015171909 -0.053931274 0.69823599
0.016501429 -0.05393111 0.6982348
0.017830951 -0.053930931 0.69823354
0.019160483 -0.053930774 0.69823241
0.02049 -0.053930622 0.69823122
0.02188419 -0.054084029 0.70023012
0.023217494 -0.054083884 0.70022893
0.024550861 -0.054083742 0.70022774
0.025884187 -0.054083567 0.70022655
0.02721752 -0.054083429 0.70022541
-0.02505729 -0.053355515 0.70827168
-0.0236763 -0.053280454 0.7072705
-0.022268584 -0.053130474 0.70526916
-0.020897118 -0.053055458 0.70426798
-0.019529412 -0.052980345 0.70326662
-0.018190389 -0.052980192 0.70326543
-0.016851353 -0.052980036 0.70326424
-0.015470308 -0.052830108 0.70126301
-0.014135061 -0.052829951 0.70126182
-0.012782629 -0.052754909 0.70026064
-0.011403429 -0.052530035 0.69725931
-0.010075822 -0.05252989 0.69725817
-0.008748197 -0.05252973 0.69725686
-0.0074014305 -0.052379739 0.69525564
-0.0060776165 -0.052379616 0.6952545
-0.0047538285 -0.052379459 0.69525331
-0.0034299905 -0.052379277 0.69525212
-0.0021042505 -0.052304231 0.69425094
-0.00078231451 -0.052304093 0.69424975
0.00053956796 -0.052303914 0.6942485
0.0018614765 -0.052303769 0.69424731
0.0031890734 -0.052378494 0.69524616
0.0045128632 -0.052378323 0.69524503
0.0058366493 -0.052378185 0.69524384
0.0071604727 -0.052377999 0.69524264
0.0084842732 -0.052377861 0.69524145
0.0098080905 -0.052377708 0.69524032
0.011131912 -0.052377537 0.69523907
0.012455717 -0.052377373 0.69523793
0.013821312 -0.052527033 0.69723678
0.015148937 -0.052526865 0.69723558
0.016476564 -0.052526683 0.69723439
0.01780417 -0.052526537 0.6972332
0.019131813 -0.052526359 0.69723201
0.020489814 -0.052601114 0.6982308
0.021884032 -0.052750729 0.7002297
0.023217341 -0.052750565 0.70022845
0.024550708 -0.052750412 0.70022726
0.025922051 -0.052825145 0.70122606
-0.025023129 -0.051933978 0.70727128
-0.023676481 -0.051933806 0.70727009
-0.022268757 -0.051787674 0.70526874
-0.020868665 -0.051641494 0.7032674
-0.019529598 -0.05164133 0.7032662
-0.018190561 -0.051641177 0.70326501
-0.016851522 -0.05164101 0.70326382
-0.015470462 -0.051494882 0.70126259
-0.014116119 -0.051421721 0.70026135
-0.012748424 -0.051275585 0.69826001
-0.011403601 -0.051202428 0.69725889
-0.010075992 -0.051202271 0.69725764
-0.0087483563 -0.051202126 0.69725651
-0.007401587 -0.051055931 0.69525516
-0.006077786 -0.051055793 0.69525403
-0.0047539682 -0.05105564 0.69525284
-0.0034301453 -0.051055454 0.69525164
-0.002104406 -0.050982315 0.6942504
-0.0007824974 -0.050982166 0.69424921
0.00053755444 -0.050909042 0.69324803
0.0018575442 -0.050908849 0.69324684
0.0031832142 -0.050981689 0.6942457
0.0045051239 -0.050981522 0.69424456
0.0058270306 -0.050981384 0.69424337
0.0071489238 -0.050981227 0.69424224
0.008470838 -0.050981037 0.69424099
0.0098079508 -0.051053889 0.69523984
0.011131743 -0.051053714 0.69523865
0.01245556 -0.051053561 0.69523746
0.01377935 -0.051053394 0.69523633
0.015148771 -0.05119922 0.69723511
0.016476393 -0.051199071 0.69723397
0.017804017 -0.051198907 0.69723272
0.01913164 -0.051198747 0.69723159
0.02048968 -0.051271558 0.69823027
0.021883866 -0.051417381 0.70022923
0.02314873 -0.051271249 0.69822794
0.024478246 -0.051271103 0.69822675
0.025883878 -0.051416926 0.70022565
-0.026406217 -0.050658531 0.70827198
-0.025023308 -0.050587319 0.7072708
-0.023611765 -0.050444987 0.70526952
-0.022238396 -0.050373722 0.70426828
-0.020868799 -0.050302435 0.70326692
-0.019529777 -0.050302278 0.70326573
-0.018190708 -0.050302114 0.70326453
-0.016805878 -0.050159808 0.70126331
-0.015449623 -0.050088532 0.70026207
-0.014078096 -0.049946211 0.69826072
-0.012731375 -0.049874943 0.69725955
-0.011403741 -0.049874812 0.69725841
-0.010076129 -0.04987463 0.69725716
-0.0087255649 -0.049732294 0.69525594
-0.0074017583 -0.049732119 0.69525474
-0.0060779424 -0.049731981 0.69525355
-0.0047541247 -0.049731832 0.69525236
-0.0034264587 -0.049660575 0.69425118
-0.0021045522 -0.049660437 0.69424999
-0.00078260084 -0.049589187 0.69324875
0.00053738151 -0.049589042 0.69324762
0.0018573971 -0.049588878 0.69324636
0.0031773979 -0.049588706 0.69324523
0.0044973968 -0.04958855 0.69324404
0.0058173807 -0.049588393 0.69324285
0.0071487701 -0.049659297 0.69424176
0.0084706787 -0.049659144 0.69424057
0.0097925533 -0.049659014 0.69423938
0.011131583 -0.049729925 0.69523823
0.012455391 -0.049729738 0.69523698
0.013779193 -0.049729586 0.69523585
0.015102998 -0.049729425 0.6952346
0.016426802 -0.049729273 0.69523346
0.017803861 -0.049871296 0.69723231
0.019131472 -0.049871113 0.69723111
0.02045908 -0.049870964 0.69722992
0.021786703 -0.049870811 0.69722873
0.023114324 -0.049870666 0.6972276
0.024441967 -0.049870487 0.69722635
0.025769558 -0.049870338 0.69722521
-0.026370114 -0.04924079 0.70727152
-0.0249548 -0.049102273 0.70527023
-0.023611942 -0.049102113 0.70526904
-0.022238547 -0.049032766 0.7042678
-0.020868981 -0.048963394 0.70326644
-0.019476498 -0.048824906 0.70126522
-0.018141262 -0.048824716 0.70126408
-0.016783115 -0.048755374 0.70026278
-0.015407781 -0.04861683 0.69826144
-0.014059157 -0.048547506 0.69726026
-0.012731533 -0.048547331 0.69725913
-0.011373347 -0.048408821 0.69525784
-0.010049524 -0.048408639 0.69525665
-0.0087257214 -0.048408486 0.69525546
-0.0074019036 -0.048408333 0.69525433
-0.0060780989 -0.048408173 0.69525307
-0.0047485111 -0.048338838 0.69425189
-0.0034266345 -0.048338693 0.69425076
-0.0021027743 -0.048269354 0.69324946
-0.00078276993 -0.048269164 0.69324827
0.00053725846 -0.048269011 0.69324708
0.0018572556 -0.048268866 0.69324595
0.0031772396 -0.048268709 0.69324476
0.0044972384 -0.048268549 0.69324362
0.0057982933 -0.048130043 0.6912424
0.0071372385 -0.048268229 0.69324118
0.008457222 -0.048268069 0.69324005
0.0097772358 -0.048267916 0.69323885
0.011114324 -0.048336919 0.69423777
0.012455234 -0.04840593 0.6952365
0.013779037 -0.048405778 0.69523537
0.015102838 -0.04840564 0.69523418
0.01642666 -0.048405468 0.69523299
0.017803691 -0.048543677 0.69723183
0.019131314 -0.048543517 0.6972307
0.020458926 -0.048543334 0.69722944
0.021818887 -0.048612364 0.69822818
0.023114171 -0.048543036 0.69722712
0.024441794 -0.048542876 0.69722593
0.025769392 -0.048542693 0.69722474
0.027096996 -0.048542555 0.69722354
0.02842465 -0.048542395 0.69722235
-0.027716968 -0.047894284 0.70727229
-0.026370278 -0.047894131 0.7072711
-0.024954958 -0.047759388 0.70526975
-0.023579672 -0.047691956 0.70426852
-0.022208167 -0.047624502 0.70326716
-0.020811899 -0.047489837 0.70126593
-0.019476665 -0.047489665 0.70126474
-0.018116606 -0.0474222 0.70026356
-0.016737442 -0.04728749 0.69826216
-0.015386941 -0.047220077 0.6972611
-0.014059315 -0.047219895 0.69725984
-0.012731689 -0.047219731 0.69725865
-0.011373502 -0.047085002 0.69525737
-0.010049684 -0.047084849 0.69525623
-0.008725876 -0.047084663 0.69525498
-0.007402062 -0.04708454 0.69525385
-0.0060705934 -0.047017097 0.69425267
-0.0047486853 -0.047016941 0.69425148
-0.0034267732 -0.047016766 0.69425029
-0.0021029161 -0.046949342 0.69324905
-0.00078293547 -0.046949212 0.69324785
0.00053337385 -0.046814464 0.69124663
0.0018495484 -0.046814334 0.6912455
0.0031657326 -0.046814151 0.69124424
0.0044819238 -0.04681401 0.69124317
0.0057981354 -0.046813838 0.69124198
0.0071143196 -0.046813659 0.69124067
0.0084304959 -0.046813518 0.6912396
0.0097770793 -0.0469479 0.69323844
0.011097053 -0.046947718 0.69323719
0.01243609 -0.047014866 0.6942361
0.013757984 -0.047014713 0.69423497
0.015102682 -0.047081832 0.69523376
0.016426491 -0.047081642 0.69523251
0.017750293 -0.047081489 0.69523138
0.019131163 -0.047215875 0.69723022
0.020458767 -0.047215741 0.69722903
0.021818733 -0.047282841 0.69822776
0.023114 -0.047215424 0.69722664
0.024441626 -0.047215246 0.69722545
0.025769262 -0.047215115 0.69722432
0.027096873 -0.047214929 0.69722307
0.028424479 -0.047214784 0.69722193
-0.026297983 -0.046416711 0.70527047
-0.024955111 -0.046416551 0.70526928
-0.023579838 -0.046351012 0.7042681
-0.022208352 -0.046285469 0.70326674
-0.020812061 -0.046154559 0.70126545
-0.0194501 -0.046089049 0.70026433
-0.018067131 -0.045958128 0.69826293
-0.01673761 -0.045957964 0.69826174
-0.015387078 -0.045892436 0.69726062
-0.014059482 -0.045892265 0.69725937
-0.012731873 -0.045892101 0.69725823
-0.011373661 -0.045761205 0.69525689
-0.01004984 -0.045761041 0.69525576
-0.0087145548 -0.045695513 0.69425452
-0.0073926612 -0.045695357 0.69425339
-0.006070734 -0.045695182 0.69425213
-0.0047430885 -0.045629669 0.69325095
-0.0034230878 -0.045629498 0.69324976
-0.0021030721 -0.045629334 0.69324851
-0.0007829789 -0.045498427 0.69124728
0.00053319574 -0.045498297 0.69124615
0.0018493963 -0.045498099 0.69124496
0.0031656004 -0.045497976 0.69124383
0.0044817827 -0.045497797 0.69124269
0.0057979645 -0.04549763 0.69124144
0.0071141557 -0.045497488 0.69124031
0.0084303515 -0.045497332 0.69123906
0.0097465441 -0.045497179 0.69123799
0.011096908 -0.045627736 0.69323677
0.012416907 -0.045627579 0.69323558
0.013736904 -0.045627434 0.69323438
0.015079707 -0.045692638 0.6942333
0.01640163 -0.045692489 0.69423211
0.01775015 -0.0457577 0.6952309
0.019073941 -0.045757517 0.69522977
0.020397758 -0.045757364 0.69522858
0.021786235 -0.045887962 0.69722742
0.02311386 -0.045887809 0.69722617
0.024441468 -0.045887649 0.69722503
0.025769094 -0.045887467 0.69722384
0.027096715 -0.045887336 0.69722265
0.028424311 -0.04588715 0.69722146
-0.024920935 -0.045010228 0.70426875
-0.023580002 -0.045010056 0.70426762
-0.022208501 -0.04494641 0.70326626
-0.020783605 -0.044755861 0.70026505
-0.019396815 -0.044628747 0.69826365
-0.018067315 -0.044628602 0.69826245
-0.016714873 -0.044564985 0.69726133
-0.015387245 -0.044564802 0.69726014
-0.014059623 -0.044564642 0.69725895
-0.012697619 -0.044437543 0.69525766
-0.011373813 -0.044437371 0.69525647
-0.010049994 -0.044437207 0.69525528
-0.0087147085 -0.044373583 0.69425404
-0.0073832446 -0.044309981 0.6932528
-0.0060632457 -0.044309825 0.69325167
-0.0047316961 -0.044182729 0.69125044
-0.0034155308 -0.044182565 0.69124925
-0.0020993319 -0.044182383 0.69124806
-0.00078314258 -0.044182256 0.69124693
0.00053305452 -0.044182085 0.69124568
0.0018492474 -0.044181932 0.6912446
0.0031654276 -0.044181768 0.69124341
0.0044816229 -0.044181615 0.69124216
0.0057883332 -0.044118002 0.6902411
0.0071026371 -0.04411782 0.69023985
0.0084168883 -0.044117685 0.69023871
0.0097463867 -0.044180978 0.69123751
0.01106257 -0.044180796 0.69123626
0.012378776 -0.044180658 0.69123513
0.013694959 -0.044180486 0.69123393
0.015056742 -0.044307292 0.69323277
0.016376743 -0.04430712 0.69323164
0.017723352 -0.044370428 0.6942305
0.019073782 -0.04443372 0.69522929
0.020367172 -0.0443701 0.69422811
0.021786066 -0.044560343 0.69722694
0.02304521 -0.044433232 0.69522572
0.024441285 -0.044560015 0.69722456
0.025768923 -0.044559855 0.69722342
0.027096547 -0.044559687 0.69722217
0.028424168 -0.044559557 0.69722104
-0.023547702 -0.043607511 0.70326698
-0.022147615 -0.043484252 0.70126569
-0.020783771 -0.043422513 0.70026457
-0.019397005 -0.043299254 0.69826323
-0.018042637 -0.043237522 0.69726205
-0.016715026 -0.043237355 0.69726086
-0.015345398 -0.043114051 0.69525951
-0.014021579 -0.043113887 0.69525838
-0.012697791 -0.043113735 0.69525719
-0.011358704 -0.043052029 0.69425601
-0.010036776 -0.043051843 0.69425482
-0.0087033994 -0.042990126 0.69325352
-0.0073834024 -0.04298998 0.69325238
-0.0060480512 -0.042866699 0.69125122
-0.0047318689 -0.042866528 0.69124997
-0.0034156737 -0.042866368 0.69124877
-0.0020994991 -0.042866237 0.69124764
-0.0007832484 -0.042804495 0.69024646
0.00053289084 -0.042865917 0.69124532
0.0018453081 -0.042804163 0.69024408
0.0031595866 -0.042804044 0.69024295
0.0044738776 -0.042803846 0.69024175
0.0057787243 -0.042742144 0.68924052
0.0070910822 -0.042741995 0.68923938
0.0084167719 -0.042803407 0.6902383
0.0097310282 -0.042803235 0.6902371
0.011045326 -0.042803086 0.69023591
0.012378604 -0.042864453 0.69123465
0.013694778 -0.042864326 0.69123352
0.015010975 -0.042864159 0.69123232
0.016376587 -0.042987112 0.69323111
0.017723212 -0.043048501 0.69423002
0.019045105 -0.043048345 0.69422883
0.020367026 -0.043048207 0.69422764
0.021721231 -0.043109607 0.69522649
0.023045069 -0.043109424 0.69522524
0.024368871 -0.043109272 0.69522411
0.025692664 -0.043109097 0.69522285
0.027016483 -0.043108933 0.69522172
-0.023547867 -0.042268462 0.7032665
-0.02214778 -0.042149011 0.70126528
-0.020726673 -0.041969862 0.69826394
-0.019397143 -0.041969717 0.69826275
-0.018042805 -0.041909888 0.69726157
-0.016715197 -0.041909743 0.69726044
-0.015345572 -0.041790247 0.69525915
-0.014021751 -0.041790076 0.6952579
-0.01269796 -0.041789908 0.69525677
-0.011343559 -0.04167046 0.69325548
-0.010023559 -0.041670296 0.69325423
-0.0086805951 -0.041550804 0.69125301
-0.0073644095 -0.041550696 0.69125193
-0.0060482067 -0.041550495 0.69125062
-0.0047320304 -0.041550349 0.69124955
-0.0034158353 -0.041550189 0.69124836
-0.0020976963 -0.041490387 0.69024718
-0.00078339415 -0.041490208 0.69024599
0.00053088804 -0.041490074 0.69024479
0.0018451625 -0.041489877 0.69024366
0.0031594445 -0.041489743 0.69024247
0.0044737286 -0.04148959 0.69024128
0.0057785651 -0.041429751 0.68924004
0.0070909229 -0.041429602 0.68923891
0.0084033143 -0.041429445 0.68923765
0.0097157052 -0.041429278 0.68923652
0.011045153 -0.041488789 0.6902355
0.012359452 -0.04148864 0.6902343
0.013673738 -0.041488472 0.69023311
0.015010811 -0.041547988 0.69123191
0.016327007 -0.041547824 0.69123077
0.017696442 -0.041666958 0.6932295
0.019016439 -0.041666813 0.69322836
0.02033641 -0.041666638 0.69322717
0.021688752 -0.04172612 0.69422603
0.023044897 -0.041785613 0.69522482
0.0243687 -0.041785464 0.69522363
0.025692504 -0.041785311 0.6952225
0.027016312 -0.041785121 0.69522125
-0.022147933 -0.040813785 0.7012648
-0.020726828 -0.040640336 0.69826347
-0.019370597 -0.040582426 0.69726229
-0.018042976 -0.040582277 0.69726115
-0.01666953 -0.040466592 0.69525981
-0.015345715 -0.040466458 0.69525868
-0.01400282 -0.040408529 0.69425744
-0.012680911 -0.040408369 0.69425619
-0.011343712 -0.040350426 0.69325501
-0.0099969329 -0.040234759 0.69125372
-0.008680759 -0.040234633 0.69125259
-0.0073645762 -0.040234461 0.6912514
-0.0060407086 -0.040176556 0.69025028
-0.0047264118 -0.040176421 0.69024909
-0.0034121538 -0.040176239 0.69024789
-0.0020958728 -0.040118303 0.68924659
-0.00078352058 -0.040118188 0.68924552
0.0005288726 -0.040118016 0.68924427
0.0018337364 -0.040002368 0.68724316
0.0031536401 -0.040117681 0.68924195
0.0044508777 -0.040002044 0.68724084
0.0057594464 -0.040001899 0.68723965
0.007068004 -0.040001728 0.68723845
0.00837659 -0.040001567 0.68723726
0.0097155254 -0.040116917 0.6892361
0.011027929 -0.040116761 0.68923497
0.012359275 -0.040174365 0.69023383
0.013673575 -0.040174201 0.69023269
0.014987859 -0.040174052 0.6902315
0.016326869 -0.040231593 0.69123024
0.017643044 -0.040231463 0.6912291
0.018959226 -0.040231295 0.69122785
0.020275418 -0.040231153 0.69122678
0.021656299 -0.040346466 0.6932255
0.023010518 -0.04040407 0.69422436
0.024332397 -0.04040391 0.69422323
0.025654322 -0.040403746 0.69422203
-0.020726996 -0.039310813 0.69826299
-0.01937074 -0.039254818 0.69726187
-0.018043116 -0.039254665 0.69726068
-0.016669687 -0.039142784 0.69525939
-0.015345883 -0.03914262 0.6952582
-0.01400298 -0.039086636 0.69425702
-0.012663877 -0.03903063 0.69325578
-0.011297995 -0.038862918 0.69025451
-0.0099837091 -0.038862754 0.69025332
-0.0086694388 -0.038862586 0.69025218
-0.00734558 -0.038806565 0.68925083
-0.0060331947 -0.038806431 0.68924969
-0.0047208159 -0.038806256 0.68924844
-0.0034084287 -0.038806114 0.68924731
-0.0020921549 -0.038694289 0.6872462
-0.00078356394 -0.038694099 0.68724501
0.00052500289 -0.038693961 0.68724388
0.0018335589 -0.038693797 0.68724269
0.0031421334 -0.038693618 0.68724144
0.0044507296 -0.03869348 0.68724036
0.0057592983 -0.038693335 0.68723917
0.0070678708 -0.03869316 0.68723804
0.0083764419 -0.038693003 0.68723685
0.0096850116 -0.038692836 0.68723571
0.01102774 -0.038804367 0.6892345
0.012340134 -0.038804196 0.68923324
0.013673414 -0.038859919 0.69023222
0.014987701 -0.038859755 0.69023103
0.016301986 -0.038859587 0.69022989
0.017642885 -0.038915265 0.69122863
0.018959092 -0.038915128 0.6912275
0.020275274 -0.038914956 0.69122624
0.021656111 -0.039026476 0.69322509
0.02297611 -0.039026305 0.69322389
0.024296109 -0.039026164 0.6932227
0.025616091 -0.039026018 0.69322157
-0.020698536 -0.037927378 0.69726264
-0.019317482 -0.037819285 0.6952613
-0.017993651 -0.037819151 0.69526011
-0.016669862 -0.037818994 0.69525898
-0.015325041 -0.037764862 0.69425768
-0.013984034 -0.037710786 0.6932565
-0.01262964 -0.037602693 0.69125515
-0.011298155 -0.037548631 0.69025403
-0.0099838683 -0.037548456 0.6902529
-0.0086581195 -0.037494361 0.6892516
-0.0073457174 -0.03749422 0.68925047
-0.0060180132 -0.03738619 0.68724924
-0.0047094538 -0.037386004 0.68724811
-0.0034008683 -0.037385844 0.68724692
-0.0020922828 -0.037385687 0.68724573
-0.00078366132 -0.037331577 0.68624455
0.00052300183 -0.037331399 0.68624336
0.0018334108 -0.037385233 0.68724221
0.003141985 -0.037385046 0.68724108
0.0044505354 -0.03738492 0.68723994
0.0057591097 -0.037384734 0.68723875
0.0070563308 -0.037330635 0.68623751
0.0083762603 -0.03738445 0.68723643
0.0096848328 -0.037384279 0.68723524
0.011027596 -0.037491985 0.68923396
0.012339991 -0.037491791 0.68923283
0.013673238 -0.037545644 0.69023174
0.014987556 -0.037545457 0.69023061
0.016301822 -0.037545331 0.69022942
0.017642727 -0.037599072 0.69122821
0.018958909 -0.0375989 0.69122696
0.020275084 -0.037598759 0.69122583
0.021591296 -0.037598591 0.69122463
0.022907477 -0.037598431 0.69122344
0.024223669 -0.03759829 0.69122231
-0.020698672 -0.036599737 0.69726217
-0.019317621 -0.036495466 0.69526082
-0.017993821 -0.036495324 0.69525963
-0.016670018 -0.036495186 0.6952585
-0.015325199 -0.036442954 0.69425726
-0.013984201 -0.036390752 0.69325596
-0.0126126 -0.036234498 0.69025481
-0.011298331 -0.036234345 0.69025362
-0.0099706259 -0.036182135 0.68925238
-0.0086582638 -0.036181971 0.68925112
-0.0073267464 -0.036077779 0.68725002
-0.0060181743 -0.036077607 0.68724883
-0.0047095888 -0.036077451 0.68724763
-0.0033971623 -0.036025237 0.68624645
-0.0020904844 -0.036025062 0.68624526
-0.00078383781 -0.036024898 0.68624407
0.00052280322 -0.036024768 0.68624294
0.0018294976 -0.036024582 0.68624175
0.0031361592 -0.036024421 0.68624055
0.0044428459 -0.036024284 0.68623942
0.0057494943 -0.036024105 0.68623823
0.0070561706 -0.036023948 0.68623704
0.0083628409 -0.036023822 0.6862359
0.0096846847 -0.036075711 0.68723482
0.010993255 -0.036075555 0.68723363
0.012339807 -0.036179453 0.68923241
0.013652186 -0.036179278 0.68923122
0.014987364 -0.036231183 0.69023013
0.016301678 -0.036231034 0.690229
0.017642567 -0.036282886 0.69122767
0.018958746 -0.036282733 0.6912266
0.020244503 -0.036230549 0.69022542
0.021591136 -0.036282402 0.69122416
0.0229073 -0.036282264 0.69122303
0.02422354 -0.036282092 0.69122183
-0.02072748 -0.035322271 0.69826168
-0.019371234 -0.035271958 0.6972605
-0.017993992 -0.035171516 0.69525921
-0.016647251 -0.035121225 0.69425797
-0.015304363 -0.035070941 0.69325674
-0.013946148 -0.034970522 0.69125551
-0.012629951 -0.034970351 0.69125432
-0.011298458 -0.034920037 0.69025314
-0.0099708168 -0.034869757 0.6892519
-0.008658424 -0.034869581 0.68925065
-0.0073269061 -0.034769185 0.68724954
-0.0060183331 -0.034769017 0.68724829
-0.0047039986 -0.034718707 0.68624717
-0.0033973241 -0.034718562 0.68624598
-0.0020906627 -0.034718398 0.68624479
-0.00078397378 -0.034718249 0.68624365
0.00052265631 -0.034718096 0.68624246
0.001829349 -0.034717925 0.68624127
0.0031360064 -0.034717783 0.68624014
0.0044426681 -0.034717619 0.68623894
0.0057493439 -0.034717459 0.68623775
0.0070560053 -0.034717292 0.68623662
0.0083626816 -0.034717131 0.68623549
0.0096845217 -0.034767143 0.68723434
0.010993092 -0.034766983 0.68723315
0.012301665 -0.034766812 0.68723196
0.01365204 -0.034866903 0.68923074
0.014987217 -0.034916915 0.69022971
0.01630149 -0.034916732 0.69022852
0.017642403 -0.034966718 0.69122732
0.018958585 -0.034966547 0.69122607
0.020244371 -0.034916285 0.69022501
0.021590978 -0.034966215 0.69122368
0.022907173 -0.034966055 0.69122249
0.024223363 -0.034965914 0.69122142
-0.020727649 -0.033992745 0.6982612
-0.019371402 -0.033944324 0.69726002
-0.017994149 -0.033847708 0.69525874
-0.016647425 -0.033799313 0.6942575
-0.015304533 -0.033750918 0.69325626
-0.013946329 -0.033654284 0.69125497
-0.012630126 -0.033654157 0.6912539
-0.01129865 -0.033605762 0.69025272
-0.009970963 -0.033557381 0.68925142
-0.0086585702 -0.033557199 0.68925023
-0.0073270686 -0.033460613 0.68724912
-0.0060184831 -0.033460457 0.68724793
-0.0047041303 -0.033412036 0.68624669
-0.0033974857 -0.033411887 0.6862455
-0.0020908134 -0.033411745 0.68624437
-0.00078413374 -0.033411559 0.68624318
0.00052252586 -0.03341141 0.68624198
0.0018291686 -0.033411268 0.68624085
0.003135876 -0.033411097 0.68623966
0.0044425228 -0.033410933 0.68623847
0.0057491804 -0.033410791 0.68623734
0.0070558526 -0.033410653 0.6862362
0.0083625028 -0.033410467 0.68623501
0.0096691772 -0.033410314 0.68623388
0.010975852 -0.033410169 0.68623269
0.012301502 -0.033458244 0.68723154
0.013610071 -0.033458091 0.68723041
0.014964266 -0.033554383 0.68922913
0.016301358 -0.033602454 0.6902281
0.017615627 -0.033602301 0.69022691
0.018929927 -0.033602152 0.69022572
0.020244185 -0.033601969 0.69022453
0.021590818 -0.033650022 0.69122326
0.022907024 -0.033649884 0.69122213
0.024223192 -0.033649713 0.69122094
-0.019318111 -0.032524072 0.69525945
-0.017944664 -0.032431271 0.69325817
-0.016624644 -0.032431066 0.69325697
-0.015304676 -0.032430921 0.69325578
-0.013946467 -0.032338142 0.69125462
-0.012613083 -0.032291658 0.69025344
-0.011283501 -0.032245163 0.6892522
-0.0099443542 -0.032152344 0.68725097
-0.0086357873 -0.032152213 0.68724978
-0.0073272018 -0.032152049 0.68724865
-0.0060109701 -0.032105535 0.68624741
-0.0047042924 -0.03210536 0.68624622
-0.0033976512 -0.03210523 0.68624508
-0.0020909603 -0.032105073 0.68624389
-0.00078430487 -0.032104939 0.68624282
0.00052237685 -0.032104746 0.68624157
0.0018290383 -0.032104582 0.68624038
0.0031356849 -0.032104418 0.68623918
0.0044423738 -0.032104269 0.68623805
0.0057490184 -0.032104116 0.68623686
0.0070557054 -0.032103982 0.68623573
0.0083623705 -0.032103792 0.68623459
0.009669017 -0.032103628 0.6862334
0.010975686 -0.032103516 0.68623227
0.012301335 -0.032149695 0.68723112
0.013609921 -0.032149538 0.68722993
0.014918495 -0.032149352 0.68722874
0.016276464 -0.03224184 0.68922752
0.017615473 -0.032287981 0.69022638
0.018929766 -0.032287866 0.69022524
0.020244053 -0.032287687 0.69022411
0.021590652 -0.032333866 0.69122291
0.022872623 -0.03228737 0.69022173
-0.019291544 -0.031155836 0.69425899
-0.017944835 -0.031111255 0.69325775
-0.016624816 -0.031111065 0.69325656
-0.015262821 -0.031022098 0.69125539
-0.013946634 -0.031021906 0.69125408
-0.012613256 -0.030977359 0.69025296
-0.011283675 -0.030932771 0.68925172
-0.009944519 -0.030843789 0.68725049
-0.0086359484 -0.03084363 0.6872493
-0.0073177768 -0.030799009 0.68624812
-0.006011121 -0.03079888 0.68624699
-0.0047044447 -0.030798722 0.6862458
-0.0033977947 -0.03079853 0.68624461
-0.0020911389 -0.030798402 0.68624347
-0.000784448 -0.030798245 0.68624228
0.00051849772 -0.030709259 0.68424112
0.001828871 -0.030797942 0.68623996
0.0031355324 -0.03079778 0.68623877
0.0044421935 -0.030797618 0.68623757
0.0057488694 -0.030797452 0.6862365
0.0070555289 -0.030797303 0.68623531
0.0083622057 -0.030797143 0.68623412
0.0096688643 -0.030796988 0.68623298
0.010975526 -0.030796826 0.68623179
0.012282202 -0.030796666 0.6862306
0.013609761 -0.030840943 0.68722951
0.014918332 -0.030840782 0.68722832
0.016226888 -0.030840622 0.68722713
0.017588699 -0.030929264 0.68922585
0.018929591 -0.03097358 0.69022483
0.020152628 -0.030840157 0.68722361
0.021558177 -0.030973252 0.6902225
0.022872461 -0.030973101 0.69022131
-0.01794501 -0.029791268 0.69325727
-0.016624993 -0.029791091 0.69325608
-0.01526296 -0.02970588 0.69125479
-0.013927673 -0.029663242 0.69025373
-0.012613388 -0.029663078 0.69025254
-0.01128382 -0.029620383 0.68925124
-0.0099446671 -0.029535221 0.68725008
-0.0086246012 -0.029492509 0.68624884
-0.0073179533 -0.029492332 0.68624765
-0.0060112807 -0.029492192 0.68624651
-0.0047046212 -0.029492043 0.68624532
-0.0033979637 -0.029491903 0.68624419
-0.0020912858 -0.029491728 0.686243
-0.00078462448 -0.029491566 0.68624181
0.00051834527 -0.029406415 0.6842407
0.0018286962 -0.029491249 0.68623948
0.0031240678 -0.029406132 0.68423837
0.0044269161 -0.029405929 0.68423712
0.0057487078 -0.029490774 0.68623602
0.0070553822 -0.029490629 0.68623483
0.0083620418 -0.029490475 0.6862337
0.0096687051 -0.029490298 0.68623251
0.010975379 -0.029490152 0.68623132
0.01230104 -0.029532561 0.68723023
0.013609599 -0.029532373 0.68722904
0.014918183 -0.02953223 0.68722785
0.01622672 -0.029532088 0.68722671
0.017588533 -0.029616907 0.68922544
0.01892945 -0.029659262 0.69022435
0.020243736 -0.029659096 0.69022316
0.021558017 -0.029658968 0.69022202
